# .PCD v0.7 - Point Cloud Data file format
VERSION 0.7
FIELDS x y z
SIZE 4 4 4
TYPE F F F
COUNT 1 1 1
WIDTH 181
HEIGHT 1
VIEWPOINT 0 0 0 1 0 0 0
POINTS 181
DATA ascii
2.4737461 -0.237729 -9.0798378
2.4550791 -0.237764 -9.0863161
2.433439 -0.23751 -9.0817165
2.4131341 -0.23738401 -9.0819817
2.3936191 -0.237335 -9.0851583
2.377733 -0.23765001 -9.1022034
2.357177 -0.2375 -9.1014137
2.337625 -0.237451 -9.1044493
2.32182 -0.237785 -9.1221609
2.2981751 -0.237317 -9.1090345
2.2837491 -0.237802 -9.132453
2.033731 -0.237738 -9.1887417
2.0109551 -0.237321 -9.1768885
1.9948061 -0.237688 -9.1952515
1.974504 -0.237563 -9.1945782
1.958222 -0.23792499 -9.2127142
1.932465 -0.237132 -9.1860933
1.918196 -0.237749 -9.2140188
1.9004281 -0.237941 -9.2254581
1.875369 -0.237216 -9.2012968
1.858753 -0.237556 -9.2183857
1.84226 -0.23792 -9.2363882
1.821401 -0.23772299 -9.2325678
1.802994 -0.237846 -9.2411509
1.784644 -0.23797999 -9.2501278
1.761974 -0.237536 -9.2365913
1.744836 -0.237838 -9.2519789
1.722597 -0.237444 -9.2402916
1.704556 -0.237627 -9.2510071
1.686439 -0.23780499 -9.2614946
1.665853 -0.237636 -9.2584152
1.644606 -0.237369 -9.2514696
1.628758 -0.237885 -9.2750101
1.609053 -0.23784401 -9.2768011
1.588712 -0.237708 -9.2748556
1.567124 -0.237381 -9.2653923
1.548406 -0.237487 -9.2727938
1.532737 -0.23807 -9.2987909
1.509908 -0.237543 -9.2813959
1.489746 -0.23742799 -9.2800426
1.470219 -0.237414 -9.2825994
1.4262379 -0.233399 -9.1286087
1.399696 -0.232168 -9.0834303
1.391464 -0.16014101 -9.1573725
1.367771 -0.159615 -9.130168
1.390474 -0.114301 -9.2817154
1.3800091 -0.056318998 -9.2118578
1.344934 -0.15917499 -9.1078644
1.368766 -0.114112 -9.2692547
1.355193 -0.056090999 -9.1773434
1.3266979 0.053521998 -9.1164598
1.32653 -0.159256 -9.1153078
1.347388 -0.113947 -9.2586327
1.332221 -0.055934001 -9.1544094
1.308735 0.053569 -9.1271324
1.3019511 -0.23171499 -9.0798178
1.3072259 -0.15923101 -9.1166086
1.3279231 -0.113941 -9.2609482
1.313642 -0.055959001 -9.1613512
1.293861 -0.15993901 -9.159894
1.312826 -0.114315 -9.2941523
1.2969151 -0.056065999 -9.1815119
1.2824841 -0.0067079999 -9.0793486
1.262705 -0.23149399 -9.0765581
1.27271 -0.159693 -9.1484737
1.296515 -0.114594 -9.3195896
1.246943 -0.232099 -9.1029062
1.231063 -0.232702 -9.1291389
1.226159 -0.235432 -9.2388248
1.217895 -0.23759501 -9.3262911
1.1976351 -0.237451 -9.3231754
1.1819839 -0.238233 -9.3563681
1.159088 -0.23755699 -9.3322668
1.1384341 -0.23732699 -9.3256187
1.131868 0.066910997 -11.461299
1.101468 -0.142544 -11.652317
-0.79965001 -0.072195001 -11.913555
-0.79218 -0.008653 -11.802258
-0.82175899 -0.20572799 -11.870801
-0.83371198 -0.147026 -12.04346
-0.82362199 -0.072109997 -11.897711
-0.81859201 -0.0086709997 -11.825042
-0.84924901 -0.206366 -11.905897
-0.86110598 -0.147397 -12.072126
-0.87706399 -0.176806 -10.188728
-0.89494503 -0.176126 -10.14767
-0.90885103 -0.125994 -10.305338
-0.91404498 -0.175712 -10.121958
-0.92829901 -0.125705 -10.279809
-0.91922301 -0.061797999 -10.179299
-0.90985799 -0.0074 -10.075596
-0.93655503 0.059128001 -10.134215
-0.93443602 -0.175561 -10.111283
-0.94785601 -0.12544399 -10.256498
-0.94182199 -0.061882 -10.19121
-0.930089 -0.007394 -10.064253
-0.95841801 0.059168 -10.139013
-0.95782101 -0.17596699 -10.132704
-0.96923703 -0.125432 -10.253469
-0.96285802 -0.061861999 -10.185987
-0.94996703 -0.0073839999 -10.049609
-0.98010302 -0.176158 -10.141654
-0.99572098 -0.126066 -10.303261
-0.98370099 -0.061832 -10.178884
-1.003831 -0.176596 -10.1648
-1.023208 -0.237803 -9.3579435
-1.041756 -0.237564 -9.3463554
-1.061474 -0.237597 -9.3454409
-1.0807199 -0.237525 -9.3403835
-1.103339 -0.238186 -9.3640699
-1.121197 -0.23781399 -9.3471317
-1.140551 -0.23776799 -9.3429718
-1.156822 -0.237093 -9.314024
-1.182196 -0.238276 -9.3580542
-1.1989779 -0.237718 -9.3336325
-1.218707 -0.237754 -9.3325148
-1.238102 -0.237725 -9.3288212
-1.257531 -0.23770501 -9.3254242
-1.278221 -0.237921 -9.3312426
-1.2972831 -0.23783401 -9.3251143
-1.315025 -0.23751099 -9.3097258
-1.333091 -0.23725601 -9.2969761
-1.355644 -0.23779801 -9.3153667
-1.373654 -0.23753899 -9.3023643
-1.391827 -0.237316 -9.2907476
-1.415369 -0.238003 -9.3146992
-1.431319 -0.237413 -9.2886515
-1.45201 -0.237616 -9.2935629
-1.469331 -0.237271 -9.2769995
-1.490616 -0.23756699 -9.285471
-1.5134979 -0.23810799 -9.3034697
-1.52746 -0.23725 -9.2667828
-1.550581 -0.23782 -9.2858229
-1.569119 -0.237683 -9.2771864
-1.586677 -0.237404 -9.2629805
-1.60742 -0.237602 -9.2673912
-1.627959 -0.23776799 -9.2704659
-1.645659 -0.23752099 -9.2573929
-1.665271 -0.237553 -9.2551823
-1.6825 -0.23725 -9.2398663
-1.7069221 -0.237957 -9.263855
-1.725044 -0.237781 -9.253418
-1.7457221 -0.237958 -9.2566795
-1.761893 -0.237525 -9.236167
-1.782577 -0.23770501 -9.2394199
-1.799805 -0.237425 -9.2248077
-1.821046 -0.23767599 -9.2307711
-1.837255 -0.23727401 -9.2113028
-1.862305 -0.23801 -9.2360001
-1.8771501 -0.237441 -9.2100363
-1.897066 -0.23751999 -9.2091427
-1.917143 -0.237619 -9.2089634
-1.93572 -0.237532 -9.2015696
-1.955918 -0.237645 -9.2018785
-1.97677 -0.237836 -9.2051306
-1.993729 -0.23755901 -9.1902885
-2.0175359 -0.238098 -9.2069244
-2.0303509 -0.237343 -9.1734724
-2.0542059 -0.237881 -9.189991
-2.071532 -0.237661 -9.1771708
-2.0913129 -0.237725 -9.1752987
-2.1134551 -0.23805501 -9.1836233
-2.1259799 -0.237307 -9.1503286
-2.1463909 -0.237445 -9.1511841
-2.170445 -0.237982 -9.1673393
-2.1864181 -0.23763099 -9.1492825
-2.2033989 -0.237397 -9.1356668
-2.226763 -0.237849 -9.148427
-2.2409611 -0.237324 -9.1235647
-2.262428 -0.237572 -9.1283827
-2.280457 -0.23746 -9.1192923
-2.3012941 -0.237639 -9.1214008
-2.3180461 -0.237399 -9.1073322
-2.342586 -0.237955 -9.1237717
-2.3606861 -0.237854 -9.1149664
-2.376874 -0.237564 -9.0989161
-2.396342 -0.23760501 -9.0954933
-2.418247 -0.237887 -9.1012259
-2.4382639 -0.23797999 -9.0997257
-2.4538701 -0.237647 -9.0818424
-2.4732699 -0.237684 -9.0780897
