# .PCD v0.7 - Point Cloud Data file format
VERSION 0.7
FIELDS x y z
SIZE 4 4 4
TYPE F F F
COUNT 1 1 1
WIDTH 1570
HEIGHT 1
VIEWPOINT 0 0 0 1 0 0 0
POINTS 1570
DATA ascii
1.26333 -0.215571 0.32719001
1.417127 -0.228947 0.36702201
1.094409 -0.247987 0.28344101
1.1647381 -0.25506899 0.30165499
1.868351 -0.24075601 0.479711
1.9587539 -0.24207 0.502922
1.939417 -0.22781099 0.497958
2.2125731 -0.24402 0.56809199
1.553656 -0.24053501 0.398911
1.646402 -0.243775 0.42272401
2.306653 -0.24368601 0.59224802
2.4122 -0.238546 0.61934698
1.691135 -0.240762 0.43421
1.711216 -0.233509 0.439365
4.3634758 -0.23996501 1.12035
4.7081032 -0.23507001 1.208835
2.5840199 -0.23590501 0.663463
2.686821 -0.232815 0.68985802
5.5163922 -0.23700801 1.416368
6.1630921 -0.234878 1.582413
3.0349641 -0.243126 0.77924597
3.3191929 -0.24417999 0.85222399
7.7143798 -0.240271 1.980716
9.1405048 -0.238391 2.3468821
3.4990349 -0.238949 0.898399
3.8603511 -0.23836701 0.99116898
0.55099702 -0.237001 0.141472
0.54481798 -0.229744 0.13988499
1.0729589 -0.222389 0.275489
1.270999 -0.24975599 0.32633701
0.57980299 -0.238745 0.14886799
0.76655102 -0.306907 0.196817
0.403263 -0.19320101 0.10354
0.58923697 -0.27421701 0.15129
0.56793898 -0.221155 0.145822
0.596165 -0.22421999 0.153069
0.56034398 -0.25450301 0.14387199
0.60120797 -0.26430801 0.154364
0.791821 -0.240822 0.20330501
0.72153997 -0.21381301 0.18526
0.718539 -0.261601 0.184489
0.654607 -0.234042 0.168074
0.86152703 -0.246567 0.221202
0.84135097 -0.23298 0.216022
0.665712 -0.23197199 0.170926
0.68337399 -0.23134699 0.17546
0.88329601 -0.235274 0.22679199
1.02582 -0.26067999 0.26338601
0.640441 -0.20964999 0.164437
0.89287198 -0.28173101 0.22925
1.277445 -0.24050801 0.32799199
1.31129 -0.234703 0.33668199
0.946293 -0.22968701 0.24296699
0.99665099 -0.235599 0.25589699
1.276287 -0.217664 0.32769501
1.407307 -0.227238 0.36133501
1.077878 -0.244109 0.276752
1.147529 -0.251165 0.294635
1.880904 -0.24224401 0.478737
1.958375 -0.24189401 0.49845499
1.961596 -0.23029301 0.499275
2.2178719 -0.24447399 0.56450403
1.561564 -0.24163 0.397457
1.654458 -0.244836 0.421101
2.3343201 -0.24647699 0.59414297
2.422498 -0.239436 0.61658603
1.687475 -0.24011201 0.42950499
1.707769 -0.232913 0.43467
4.346355 -0.238896 1.106256
4.710772 -0.23507801 1.1990089
2.57705 -0.23514301 0.65592402
2.689194 -0.232896 0.68446702
5.525219 -0.237261 1.406307
6.1407981 -0.23390301 1.562987
3.0627811 -0.245223 0.77955401
3.3084991 -0.24326301 0.84209597
7.7106748 -0.240027 1.9625601
9.1059895 -0.23736399 2.3177021
3.5104041 -0.23959699 0.89348602
3.8890221 -0.24000899 0.98985302
0.56357402 -0.242281 0.143444
0.54976702 -0.23170701 0.13992999
1.057003 -0.218964 0.269034
1.273941 -0.2502 0.32425001
0.58227402 -0.23963501 0.148203
0.76214498 -0.304979 0.193985
0.42766601 -0.20478199 0.108852
0.566347 -0.263423 0.14415
0.56332302 -0.21923999 0.14338
0.597489 -0.22459701 0.15207601
0.56504703 -0.25650099 0.143819
0.589499 -0.259022 0.150042
0.80749702 -0.24545801 0.20552801
0.72633302 -0.21511801 0.18487
0.73419702 -0.26715899 0.18687201
0.646025 -0.23085 0.16442899
0.850034 -0.243148 0.216355
0.84707201 -0.234439 0.215601
0.66298199 -0.23089699 0.16874599
0.701285 -0.237284 0.178495
0.86967897 -0.23152301 0.22135501
1.0257289 -0.26051801 0.26107401
0.63129902 -0.20654599 0.16068099
0.887851 -0.27999601 0.22598
1.275689 -0.240049 0.32469499
1.314485 -0.235149 0.33456901
0.96109301 -0.233154 0.24462201
0.99587399 -0.23529001 0.25347501
1.274062 -0.217168 0.32428101
1.409498 -0.22747 0.358753
1.09615 -0.248114 0.27899799
1.155426 -0.252758 0.294085
1.878875 -0.241854 0.474033
1.95122 -0.24088199 0.49228501
1.964292 -0.230487 0.495583
2.2167771 -0.244223 0.55928397
1.5812171 -0.244541 0.39893499
1.640696 -0.242671 0.413941
2.3286259 -0.245746 0.58750302
2.4188659 -0.238951 0.61027098
1.705111 -0.242493 0.43019301
1.7227809 -0.234836 0.43465099
4.3717289 -0.240163 1.10297
4.7077422 -0.23480199 1.187745
2.571259 -0.23449001 0.64871901
2.686816 -0.232567 0.67787302
5.5435371 -0.237921 1.398613
6.142139 -0.23383 1.549638
3.0536611 -0.244363 0.77042699
3.3321731 -0.244874 0.84069401
7.6903901 -0.239268 1.940256
9.1270294 -0.237786 2.3027141
3.4885919 -0.237982 0.88015801
3.872983 -0.238892 0.977139
0.53700697 -0.230737 0.13548499
0.55676103 -0.23453 0.140469
1.0696501 -0.221467 0.269869
1.255159 -0.24638 0.316672
0.57431698 -0.23623499 0.144898
0.760391 -0.30411601 0.191844
0.41855901 -0.200315 0.105601
0.57347298 -0.26659599 0.144685
0.57045799 -0.221899 0.143924
0.59371197 -0.223059 0.149791
0.55860001 -0.25343999 0.14093301
0.60447598 -0.265461 0.15250701
0.79166502 -0.240518 0.199734
0.73801601 -0.21846201 0.18619899
0.71455801 -0.259875 0.18028
0.664756 -0.237418 0.167715
0.871764 -0.249231 0.219943
0.85425901 -0.236303 0.215526
0.653386 -0.22743399 0.164847
0.69210899 -0.234055 0.17461701
0.88698298 -0.23600499 0.223782
1.021632 -0.25933999 0.257754
0.65729803 -0.214939 0.16583399
0.88567501 -0.27916199 0.223452
1.288949 -0.242415 0.32519701
1.318954 -0.235824 0.33276701
0.96229398 -0.233321 0.242783
0.98101503 -0.231656 0.24750599
1.265698 -0.215628 0.31933099
1.4333 -0.231188 0.36161599
1.09096 -0.24680901 0.27524501
1.158913 -0.25338599 0.29238901
1.886456 -0.24270201 0.47174501
1.935689 -0.238839 0.48405701
1.946785 -0.228313 0.48683199
2.2263279 -0.245147 0.55673701
1.58807 -0.245472 0.39712799
1.638411 -0.24220601 0.40971699
2.3293979 -0.245698 0.58251202
2.4257619 -0.23950601 0.60661
1.684011 -0.23936599 0.42111999
1.7336971 -0.2362 0.43354499
4.3805361 -0.24052 1.095439
4.7203002 -0.235304 1.1804039
2.5791049 -0.235082 0.64495599
2.6826179 -0.232081 0.67084098
5.5232139 -0.23692399 1.381188
6.1452212 -0.233824 1.536733
3.041729 -0.24328101 0.76064402
3.339154 -0.24525701 0.83502102
7.7304988 -0.24039 1.933163
9.1360598 -0.237896 2.284651
3.500164 -0.238646 0.87528503
3.892015 -0.23994 0.97327501
0.55516499 -0.238414 0.13883001
0.54778099 -0.230626 0.13698301
1.078418 -0.22316501 0.26967999
1.2680399 -0.248778 0.31709799
0.57591301 -0.23676699 0.14401799
0.76019901 -0.30387899 0.19010299
0.42416599 -0.20289201 0.106071
0.58331603 -0.271029 0.14587
0.567509 -0.220636 0.14191701
0.607611 -0.22816101 0.15194499
0.565382 -0.25638199 0.141385
0.59068203 -0.259267 0.14771201
0.79183 -0.24044199 0.19801299
0.71969998 -0.212928 0.179975
0.72081703 -0.26201299 0.180254
0.65563601 -0.234038 0.163955
0.843153 -0.240925 0.21084701
0.86159998 -0.238208 0.21546
0.66612703 -0.231747 0.16657799
0.68022799 -0.22991601 0.170104
0.89961898 -0.239241 0.224967
1.043255 -0.264689 0.26088601
0.63546598 -0.20769 0.158911
0.89583999 -0.28221801 0.224022
1.2909859 -0.242671 0.32283601
1.328974 -0.23749 0.33233601
0.95111197 -0.230489 0.23784401
0.98603398 -0.232719 0.24657699
1.261557 -0.21481 0.31547701
1.430667 -0.23064201 0.357766
1.086885 -0.245757 0.271797
1.135969 -0.248239 0.284071
1.88712 -0.242661 0.46771401
1.9509569 -0.24059799 0.48353601
1.961307 -0.22989599 0.486101
2.207377 -0.24293301 0.54708803
1.5722179 -0.24289501 0.389667
1.6425821 -0.242696 0.40710601
2.3235819 -0.244957 0.57588899
2.405962 -0.237427 0.59630698
1.678799 -0.238501 0.41608301
1.717804 -0.233913 0.42574999
4.3646541 -0.23952299 1.08176
4.7064848 -0.234494 1.166481
2.5793619 -0.234983 0.639283
2.71609 -0.234855 0.67317098
5.5277758 -0.236996 1.370034
6.164268 -0.23442601 1.527786
3.0527301 -0.24403299 0.75660503
3.3248501 -0.24408001 0.824049
7.7043061 -0.23944999 1.909477
9.1400261 -0.237875 2.2653141
3.5078499 -0.23904499 0.86940497
3.900697 -0.24034999 0.96676999
0.55280298 -0.237276 0.13700999
0.53922099 -0.226904 0.133643
1.0571719 -0.21865401 0.26201501
1.277446 -0.25049299 0.316609
0.57706702 -0.23711701 0.143023
0.75609702 -0.302082 0.18739501
0.42903 -0.205112 0.106333
0.57725698 -0.26807401 0.143071
0.55860198 -0.21706 0.138447
0.60586101 -0.227385 0.15016
0.57207602 -0.25928301 0.14178599
0.59805697 -0.26236799 0.14822599
0.80816001 -0.245272 0.20029899
0.72557902 -0.21455599 0.179831
0.721946 -0.26228699 0.178931
0.668998 -0.238683 0.16580801
0.84982902 -0.242706 0.21062601
0.86450899 -0.238887 0.214265
0.65922201 -0.22922499 0.163385
0.68926501 -0.232849 0.17083099
0.87998301 -0.233897 0.2181
1.0367481 -0.26290101 0.256953
0.64362299 -0.210246 0.159519
0.88436401 -0.27845699 0.21918599
1.29276 -0.242878 0.32040501
1.326041 -0.23684201 0.32865301
0.94734198 -0.22945599 0.23479401
1.015974 -0.23965999 0.25180501
1.285925 -0.21884499 0.31871101
1.424403 -0.229513 0.35303199
1.08883 -0.246069 0.26986101
1.165333 -0.25452301 0.288822
1.891019 -0.243037 0.464479
1.9625469 -0.24190199 0.482048
1.94775 -0.22818901 0.47841299
2.2261839 -0.244876 0.546803
1.5994101 -0.246968 0.39285299
1.642639 -0.242579 0.40347099
2.3181541 -0.244258 0.56939298
2.4228461 -0.23897 0.59510797
1.706717 -0.242342 0.41920999
1.732327 -0.23576801 0.42550001
4.370461 -0.23971801 1.073488
4.7320619 -0.23564599 1.162306
2.5750141 -0.234465 0.63248402
2.6981561 -0.233183 0.66273099
5.5309129 -0.23700801 1.358523
6.1542101 -0.233923 1.511619
3.057471 -0.244286 0.75098699
3.3310981 -0.244412 0.818196
7.728622 -0.240082 1.898331
9.1478624 -0.237956 2.2469299
3.5102241 -0.23908301 0.862194
3.8811231 -0.23902 0.95329499
0.56484401 -0.242319 0.138739
0.56701899 -0.238478 0.139273
1.067525 -0.220681 0.262209
1.2675821 -0.24843 0.31134799
0.57402003 -0.235743 0.140993
0.77025598 -0.30757999 0.189193
0.40903601 -0.195452 0.100469
0.58370203 -0.27092701 0.143371
0.57949197 -0.225061 0.14233699
0.59444797 -0.222987 0.14601099
0.56006598 -0.253708 0.137565
0.613442 -0.268978 0.150676
0.78220499 -0.23727199 0.192128
0.72291797 -0.213658 0.17756601
0.71175301 -0.25845 0.174823
0.67811 -0.241809 0.16655999
0.846883 -0.241739 0.208014
0.850582 -0.234918 0.208923
0.65868598 -0.22892 0.161789
0.698394 -0.235811 0.171542
0.88964802 -0.23634399 0.218519
1.0257601 -0.25997999 0.25195101
0.64450997 -0.210427 0.158307
0.89928901 -0.28301001 0.22088701
1.290239 -0.24227899 0.31691301
1.316877 -0.235084 0.32345599
0.95586598 -0.231401 0.23478299
0.98823798 -0.232997 0.242734
1.264563 -0.21509799 0.310606
1.422803 -0.22913601 0.34947401
1.095075 -0.247352 0.268976
1.154202 -0.25196201 0.283499
1.878459 -0.241299 0.45722401
1.951658 -0.240437 0.475041
1.940913 -0.22727101 0.472426
2.2141881 -0.243432 0.53894198
1.570155 -0.242327 0.382182
1.641618 -0.242304 0.39957601
2.3304369 -0.245427 0.56723702
2.4251151 -0.239071 0.59028202
1.699105 -0.241138 0.413569
1.733182 -0.235764 0.42186299
4.3826499 -0.240263 1.066754
4.7337408 -0.23560899 1.152211
2.5903931 -0.235745 0.630512
2.7080569 -0.23391899 0.65915197
5.5336571 -0.237004 1.3469141
6.163137 -0.23414201 1.500132
3.066808 -0.24490599 0.74647301
3.335223 -0.244589 0.81180602
7.7108998 -0.239409 1.876863
9.1316137 -0.23741201 2.222671
3.4960749 -0.23799799 0.85095799
3.890322 -0.239464 0.94691998
0.54786903 -0.234916 0.13335399
0.54819602 -0.230443 0.133433
1.067181 -0.220497 0.259756
1.272875 -0.24934 0.30982301
0.58362401 -0.239565 0.142056
0.75076997 -0.29964599 0.18274
0.42803299 -0.20442501 0.104185
0.57792902 -0.26811001 0.14067
0.57364303 -0.222675 0.13962699
0.61180699 -0.229381 0.14891601
0.55183101 -0.24985 0.13431799
0.59992701 -0.26291701 0.146025
0.80696797 -0.24465901 0.196419
0.73470002 -0.21702901 0.178829
0.71651101 -0.26004401 0.174402
0.66797 -0.23807099 0.162587
0.839387 -0.23947699 0.20431
0.85124099 -0.234979 0.207195
0.69501001 -0.241421 0.169168
0.695391 -0.234677 0.16926099
0.88018399 -0.23371001 0.21424
1.048318 -0.265562 0.25516501
0.640239 -0.20892601 0.155837
0.87755102 -0.27602801 0.213599
1.298712 -0.243745 0.31611201
1.325182 -0.23644599 0.32255501
0.94858497 -0.22951999 0.23088901
0.99738002 -0.23503201 0.24276599
1.257874 -0.213851 0.30617201
1.424771 -0.22933599 0.34679499
1.074404 -0.242559 0.26151401
1.148219 -0.25052699 0.27948099
1.887531 -0.242341 0.45524701
1.942279 -0.23916 0.46845201
1.933543 -0.226293 0.46634501
2.2179329 -0.24372 0.53493601
1.5725 -0.24256501 0.37926599
1.635172 -0.24123 0.39438099
2.3293591 -0.245189 0.56181002
2.4097459 -0.237435 0.58119798
1.681615 -0.238534 0.40558299
1.7264431 -0.23472799 0.41639501
4.3694491 -0.239418 1.053852
4.7232699 -0.234969 1.139189
2.5854039 -0.235172 0.62356502
2.687485 -0.232024 0.64818501
5.5502558 -0.23759501 1.338647
6.1600218 -0.233905 1.485715
3.0570519 -0.244004 0.73732001
3.3248091 -0.24370199 0.80189902
7.7199512 -0.239568 1.861948
9.1472015 -0.23769701 2.206182
3.509655 -0.238801 0.84648198
3.893301 -0.239526 0.93901199
0.54161203 -0.232116 0.13063
0.57682902 -0.242356 0.13912299
1.078413 -0.22270501 0.26009899
1.2790231 -0.25041699 0.308483
0.56623399 -0.232309 0.13656799
0.75192302 -0.29995301 0.181354
0.41574699 -0.198456 0.100273
0.58462501 -0.271079 0.141004
0.57863998 -0.224501 0.13956
0.60563099 -0.22695 0.14607
0.57043099 -0.25814 0.13758001
0.60152799 -0.26348501 0.145081
0.81030399 -0.245545 0.195434
0.725761 -0.21427999 0.175044
0.73453403 -0.26644999 0.17715999
0.66696501 -0.237592 0.160863
0.859115 -0.24498101 0.20720699
0.858482 -0.236858 0.207054
0.63985002 -0.222148 0.154323
0.68022901 -0.229444 0.16406199
0.88318199 -0.234387 0.21301199
1.033483 -0.26167101 0.24926201
0.65310502 -0.213016 0.15752
0.88840503 -0.2793 0.21427099
1.287372 -0.241494 0.31049699
1.329394 -0.237077 0.32063201
0.96926397 -0.234405 0.23377401
0.99081397 -0.233366 0.23897099
1.274987 -0.21664999 0.30750999
1.422439 -0.228844 0.34307301
1.085434 -0.24492501 0.261792
1.15957 -0.25287601 0.27967301
1.886218 -0.24205101 0.45075199
1.955093 -0.24061701 0.46721101
1.952117 -0.228352 0.46650001
2.249197 -0.247031 0.537494
1.586121 -0.244544 0.37903801
1.66611 -0.245671 0.39815301
2.316381 -0.2437 0.55354899
2.4055691 -0.23690499 0.574862
1.695804 -0.240426 0.405249
1.719344 -0.23364501 0.41087401
4.365653 -0.23909 1.0432661
4.7264681 -0.235009 1.129491
2.581043 -0.234657 0.61679602
2.702317 -0.233188 0.64577699
5.5229721 -0.23630799 1.319833
6.1624289 -0.233879 1.472645
3.052182 -0.24349201 0.72938401
3.335573 -0.244368 0.79710698
7.7202849 -0.23945799 1.844928
9.1496496 -0.23764101 2.1865051
3.532815 -0.240256 0.84424198
3.889617 -0.239179 0.92950702
0.54590797 -0.23383901 0.130456
0.54352802 -0.22825 0.129888
1.067145 -0.220267 0.25501701
1.27917 -0.25031999 0.30568501
0.58117598 -0.23831899 0.13888501
0.77086598 -0.30735499 0.18421499
0.41681701 -0.19886699 0.099606998
0.57515597 -0.266554 0.137446
0.58528101 -0.226964 0.139865
0.59900397 -0.224354 0.14314499
0.559277 -0.25296599 0.133651
0.60639101 -0.26548201 0.14490999
0.79990202 -0.24227101 0.191154
0.72585303 -0.21419901 0.173458
0.71833098 -0.26044199 0.171661
0.67202097 -0.239273 0.160594
0.85489202 -0.243654 0.20429499
0.86564499 -0.23871399 0.206865
0.66788399 -0.231764 0.159605
0.67046899 -0.22603799 0.16022301
0.90119398 -0.23904701 0.21536
1.038586 -0.262831 0.248192
0.64556801 -0.21045201 0.154272
0.89385301 -0.280871 0.213605
1.271315 -0.238362 0.303808
1.318184 -0.23495901 0.31500801
0.95734298 -0.231406 0.228778
0.98481798 -0.231837 0.23534299
1.283502 -0.217988 0.30671999
1.441071 -0.23172501 0.34437501
1.096362 -0.24726599 0.26199901
1.1444319 -0.249449 0.273487
1.876861 -0.24073 0.444363
1.968835 -0.24218699 0.46613899
1.964038 -0.22963201 0.46500301
2.207551 -0.242337 0.52265698
1.570933 -0.242081 0.371932
1.625643 -0.239584 0.38488501
2.3253069 -0.244517 0.55053598
2.4222469 -0.238428 0.573488
1.677554 -0.23772 0.39717501
1.728543 -0.234778 0.40924701
4.3768201 -0.239582 1.03625
4.7332048 -0.235227 1.120627
2.588448 -0.235213 0.61283702
2.698931 -0.23277999 0.63899499
5.5452762 -0.23714399 1.312892
6.165153 -0.23386601 1.459653
3.045666 -0.242852 0.72108799
3.329896 -0.24383099 0.78838098
7.744843 -0.2401 1.833658
9.1274996 -0.236947 2.1610141
3.515558 -0.23896299 0.83233899
3.8889799 -0.23902 0.92074901
0.52981102 -0.226831 0.12543701
0.547391 -0.22975799 0.1296
1.071804 -0.221119 0.253759
1.270708 -0.24854 0.30085099
0.59452701 -0.243673 0.14075901
0.76517302 -0.304934 0.181161
0.424871 -0.202608 0.100592
0.57729298 -0.26741099 0.13667899
0.56068498 -0.217317 0.13274699
0.60804099 -0.227625 0.143959
0.55541801 -0.251095 0.13150001
0.606071 -0.26520899 0.143492
0.79608202 -0.24099401 0.18847901
0.74160397 -0.218738 0.17558099
0.71521598 -0.25918299 0.169333
0.662781 -0.235865 0.156919
0.84435803 -0.240532 0.199909
0.85000902 -0.234285 0.20124701
0.67512798 -0.234161 0.159842
0.69496298 -0.23417901 0.164538
0.88820702 -0.235485 0.210291
1.024056 -0.25902399 0.24245401
0.65595597 -0.213732 0.155303
0.88715702 -0.278629 0.210042
1.280816 -0.240024 0.30324399
1.321198 -0.23537999 0.312805
0.956563 -0.231102 0.226474
0.99432302 -0.23395801 0.235415
1.264616 -0.214673 0.299409
1.41527 -0.22746301 0.33507699
1.093137 -0.246416 0.258809
1.165778 -0.253975 0.27600801
1.88406 -0.24153399 0.44190201
1.9505759 -0.239823 0.45750299
1.941367 -0.22687 0.45534399
2.218504 -0.24341901 0.52034599
1.577269 -0.242938 0.36994499
1.642542 -0.241955 0.38525501
2.326926 -0.24456701 0.54577601
2.4096501 -0.23707099 0.56517798
1.696005 -0.240216 0.39779401
1.723911 -0.234034 0.40434
4.375988 -0.239418 1.026379
4.7307291 -0.234988 1.109583
2.593344 -0.235542 0.60826302
2.7050841 -0.23319501 0.63447201
5.5464129 -0.237076 1.3009
6.1792789 -0.234286 1.449337
3.0556891 -0.24353001 0.71670598
3.3347161 -0.244063 0.78215098
7.7390022 -0.239801 1.815167
9.1713829 -0.237969 2.151129
3.5030191 -0.237993 0.82162601
3.9168651 -0.240615 0.91869199
0.54060501 -0.23133799 0.126798
0.557096 -0.233716 0.130666
1.053182 -0.217169 0.247022
1.270503 -0.248377 0.29799399
0.58751601 -0.24067999 0.13780101
0.75021499 -0.298825 0.175961
0.44663 -0.21288 0.104756
0.56749898 -0.26274499 0.13310599
0.57948899 -0.22449499 0.13591801
0.60660201 -0.226974 0.142277
0.56058401 -0.25330499 0.131484
0.59490401 -0.260194 0.139533
0.79416698 -0.24029601 0.18627
0.729505 -0.215064 0.171104
0.72121501 -0.261228 0.169159
0.67948103 -0.241689 0.159371
0.834086 -0.237489 0.19563299
0.85132402 -0.234532 0.19967601
0.66217798 -0.22955599 0.155312
0.68612701 -0.231088 0.16092999
0.87345898 -0.23146001 0.204868
1.033566 -0.26130101 0.242421
0.64629602 -0.210481 0.15158699
0.90237701 -0.28326899 0.211651
1.29277 -0.242144 0.30321601
1.322293 -0.235458 0.310141
0.96376503 -0.23272701 0.22604901
1.0147001 -0.238635 0.237996
1.2778111 -0.21680599 0.29970801
1.4224091 -0.228498 0.33362299
1.099449 -0.24771699 0.257873
1.152861 -0.251037 0.270401
1.904195 -0.24399599 0.44241899
1.9511009 -0.23977 0.453318
1.9553061 -0.228387 0.45429501
2.219223 -0.243379 0.51561302
1.5617861 -0.240435 0.36286399
1.658702 -0.244216 0.385382
2.3496349 -0.246833 0.54591298
2.444757 -0.240408 0.56801301
1.694919 -0.23994499 0.39379701
1.7133681 -0.232489 0.398083
4.3821878 -0.23964 1.018155
4.7412548 -0.235396 1.10158
2.580744 -0.234283 0.599608
2.6902421 -0.231802 0.625049
5.5465231 -0.236964 1.288676
6.1638432 -0.233587 1.432103
3.0651121 -0.24416199 0.71214598
3.34429 -0.244644 0.77701002
7.7462211 -0.239907 1.799752
9.1528406 -0.237372 2.126565
3.5346439 -0.240024 0.82123703
3.9059551 -0.23982801 0.907507
0.543302 -0.23237801 0.12623
0.54510701 -0.22857399 0.12665001
1.0774879 -0.222073 0.25034299
1.274036 -0.248946 0.296009
0.57774103 -0.23656 0.134232
0.78343898 -0.31190601 0.182024
0.406921 -0.193858 0.094544001
0.58781701 -0.272019 0.136573
0.57237601 -0.22163101 0.13298599
0.59527099 -0.222626 0.13830499
0.57008201 -0.257471 0.132452
0.61342603 -0.26816401 0.14252301
0.79967099 -0.241843 0.18579499
0.72010797 -0.21219 0.167309
0.72484499 -0.26241499 0.16841
0.65140098 -0.23158801 0.151346
0.85000801 -0.24190401 0.19749001
0.86560702 -0.23835 0.201114
0.67297202 -0.23318399 0.156358
0.70721298 -0.23807301 0.164314
0.90272099 -0.239098 0.209738
1.046002 -0.26431599 0.243027
0.64284497 -0.209254 0.149358
0.902578 -0.28319401 0.209704
1.276673 -0.239012 0.29662099
1.325006 -0.235826 0.30785099
0.96369398 -0.232596 0.223904
1.008543 -0.23707099 0.23432399
1.255704 -0.212951 0.29175001
1.419365 -0.227897 0.32977399
1.083076 -0.243908 0.25164101
1.163201 -0.25316501 0.270257
1.889167 -0.241953 0.43476
1.954376 -0.24005599 0.44976601
1.975831 -0.230673 0.45470399
2.23313 -0.244785 0.51391703
1.580635 -0.243219 0.363756
1.650282 -0.24285901 0.37978399
2.3314559 -0.24480399 0.53654498
2.433501 -0.23918501 0.56002897
1.697933 -0.240255 0.39074999
1.729194 -0.234523 0.39794499
4.3864908 -0.239759 1.0094759
4.739161 -0.23517799 1.090637
2.6062469 -0.23648299 0.599783
2.711983 -0.23356199 0.62411702
5.5425429 -0.23668 1.275522
6.1886258 -0.234412 1.424207
3.071346 -0.24454001 0.70681798
3.342443 -0.24439099 0.76920599
7.73417 -0.239418 1.779888
9.1569405 -0.237363 2.1073141
3.5182121 -0.238793 0.80965698
3.9036331 -0.23956899 0.89835501
0.553334 -0.236554 0.12734
0.54629099 -0.22896001 0.125719
1.066327 -0.219666 0.245397
1.295983 -0.25311199 0.29824901
0.587147 -0.24029499 0.135122
0.75995398 -0.30241001 0.17489
0.43576601 -0.2075 0.100284
0.59349799 -0.274515 0.136584
0.57208902 -0.221412 0.13165601
0.607023 -0.22691099 0.139696
0.557253 -0.251555 0.128242
0.59918201 -0.26181099 0.13789199
0.78866899 -0.2384 0.181499
0.71054101 -0.209269 0.163519
0.71427602 -0.258463 0.164378
0.66964102 -0.237957 0.15410601
0.857777 -0.24399699 0.197403
0.86316502 -0.237563 0.198643
0.66967601 -0.23193 0.15411501
0.68723297 -0.231235 0.15815499
0.87969398 -0.232886 0.202447
1.037603 -0.26206601 0.238787
0.642829 -0.209148 0.147936
0.885598 -0.277731 0.203805
1.293238 -0.24199601 0.29761699
1.326959 -0.236059 0.30537701
0.96518701 -0.232844 0.222121
1.010684 -0.237459 0.232592
1.282726 -0.217428 0.29519799
1.425553 -0.22878 0.328067
1.100261 -0.247658 0.25320601
1.157777 -0.25186199 0.26644301
1.898572 -0.24304099 0.43273899
1.961064 -0.240762 0.44698301
1.950649 -0.227623 0.44460899
2.2187221 -0.24308901 0.50571102
1.572165 -0.2418 0.35834199
1.643749 -0.24178199 0.37465799
2.340868 -0.245675 0.53355098
2.408345 -0.236599 0.548931
1.708992 -0.241704 0.38952801
1.7261339 -0.23399501 0.39343601
4.3843188 -0.239526 0.99931198
4.73068 -0.23464499 1.078258
2.570792 -0.233154 0.58595699
2.707247 -0.233043 0.61705899
5.5427079 -0.236573 1.263342
6.1831779 -0.23409399 1.409324
3.064311 -0.243863 0.69844401
3.342792 -0.24429899 0.76191801
7.7485871 -0.239749 1.766126
9.1542959 -0.23718099 2.0865271
3.5285039 -0.23937701 0.80424798
3.902483 -0.239384 0.88948798
0.54506397 -0.232907 0.124236
0.556952 -0.233316 0.126945
1.057408 -0.217724 0.241014
1.28344 -0.25054201 0.29253301
0.57918799 -0.23692399 0.13201401
0.76268601 -0.303352 0.173838
0.42207199 -0.200882 0.096202001
0.59414297 -0.27468199 0.13542201
0.58055598 -0.224581 0.13232499
0.601367 -0.22468901 0.137069
0.56345803 -0.25423399 0.128428
0.607786 -0.265443 0.138532
0.80270398 -0.24252599 0.18295901
0.730241 -0.214968 0.16644301
0.71468902 -0.258488 0.162898
0.677526 -0.24064399 0.15442801
0.86422902 -0.24571399 0.19698299
0.86485201 -0.237913 0.197125
0.65891403 -0.228093 0.150185
0.70469099 -0.236995 0.16061901
0.89346898 -0.23641901 0.203647
1.044091 -0.26357901 0.237978
0.63668102 -0.207048 0.145118
0.89913201 -0.28184 0.20493799
1.281356 -0.239658 0.29205799
1.321408 -0.23495901 0.30118701
0.96004599 -0.231492 0.218822
0.99263197 -0.233106 0.22624899
1.282905 -0.217354 0.292411
1.443163 -0.23149499 0.32893801
1.098659 -0.247179 0.25041601
1.155684 -0.251286 0.263414
1.877676 -0.240252 0.423841
1.977461 -0.24266 0.44636601
1.9295 -0.225049 0.43553901
2.231982 -0.244426 0.50381798
1.581075 -0.243055 0.35689101
1.633121 -0.240104 0.36863899
2.3253 -0.24392501 0.52488202
2.433403 -0.238947 0.54928398
1.682779 -0.237884 0.379848
1.729365 -0.234322 0.39036399
4.407125 -0.240657 0.99480498
4.7424259 -0.23511501 1.070492
2.6120009 -0.236779 0.589598
2.705055 -0.23274399 0.61060297
5.5445609 -0.23654 1.251555
6.1912508 -0.23428801 1.39753
3.06723 -0.24397901 0.69235498
3.345381 -0.244372 0.75514102
7.763134 -0.24008501 1.752346
9.1854677 -0.237876 2.073405
3.5354171 -0.239732 0.79803801
3.930223 -0.240971 0.88715601
0.54697198 -0.233612 0.123466
0.55021399 -0.23038401 0.124198
1.0818321 -0.22264799 0.24419799
1.288826 -0.25147399 0.29092199
0.58153498 -0.237771 0.13126799
0.77094001 -0.30648899 0.174022
0.407922 -0.19405501 0.092078999
0.55637598 -0.257099 0.125589
0.57875502 -0.22377899 0.13064
0.593041 -0.22147299 0.133865
0.54587102 -0.24618199 0.123218
0.597875 -0.26098999 0.134956
0.81094098 -0.244899 0.18305101
0.72821701 -0.21427 0.164378
0.72822303 -0.26325801 0.164379
0.65858299 -0.233805 0.14866
0.84335601 -0.239666 0.190368
0.85559601 -0.235255 0.193131
0.65878898 -0.22794101 0.148706
0.69746202 -0.23445299 0.157436
0.88186401 -0.233237 0.19905999
1.032119 -0.26043299 0.232977
0.65762198 -0.21375699 0.148443
0.90273798 -0.28283599 0.20377199
1.304332 -0.243839 0.294422
1.33095 -0.236543 0.30043101
0.98769403 -0.23804601 0.222949
0.98857898 -0.232044 0.223149
1.274906 -0.215896 0.28777999
1.431614 -0.229533 0.32315299
1.101843 -0.247778 0.248715
1.16644 -0.25350401 0.26329699
1.9059269 -0.243752 0.426025
1.969607 -0.241583 0.44025999
1.968472 -0.229486 0.44000599
2.217484 -0.242724 0.49566701
1.56322 -0.240197 0.34942099
1.654677 -0.243159 0.36986399
2.3462729 -0.24600901 0.524454
2.426342 -0.238142 0.54235202
1.7031291 -0.240647 0.38069499
1.742263 -0.23595899 0.389442
4.3956289 -0.239917 0.98254001
4.7471299 -0.235238 1.0611089
2.5792511 -0.23370001 0.57653099
2.6974981 -0.231984 0.60296202
5.5676289 -0.23741201 1.244513
6.1859479 -0.233977 1.382724
3.073257 -0.244344 0.68695402
3.3454399 -0.244261 0.74779499
7.7873302 -0.24072 1.740675
9.18435 -0.237735 2.0529461
3.5252941 -0.238933 0.78799701
3.921911 -0.240348 0.87665099
0.54788399 -0.233891 0.122467
0.54903001 -0.22978 0.122723
1.065612 -0.21920601 0.23819301
1.283814 -0.25037801 0.28696701
0.585621 -0.239329 0.13090201
0.75882101 -0.30152899 0.169617
0.43654501 -0.20757399 0.097579002
0.59179002 -0.27333501 0.13228101
0.570319 -0.220413 0.127481
0.60946399 -0.22749899 0.13623101
0.57146603 -0.257604 0.127738
0.59015101 -0.257498 0.131914
0.79879898 -0.241118 0.178553
0.73240501 -0.21540099 0.16371199
0.71510899 -0.258396 0.15984599
0.66429901 -0.235723 0.148488
0.84564102 -0.24020199 0.189023
0.86899102 -0.23882601 0.194243
0.65402198 -0.22618601 0.146191
0.69924802 -0.234943 0.15629999
0.90826398 -0.240107 0.203021
1.022213 -0.25781199 0.22849201
0.63951498 -0.207773 0.142949
0.88687599 -0.27773601 0.19824
1.293725 -0.241743 0.28918201
1.319461 -0.234391 0.294934
0.96100801 -0.23150501 0.214811
1.00978 -0.236909 0.225713
1.278407 -0.216387 0.28575799
1.4279799 -0.228843 0.31919101
1.092454 -0.24555101 0.244192
1.187552 -0.25797099 0.26544899
1.871948 -0.23929501 0.41431499
1.9799269 -0.242735 0.438214
1.9545259 -0.227754 0.432592
2.2182331 -0.24269301 0.49095801
1.585071 -0.243441 0.35082099
1.648273 -0.24210501 0.36480999
2.3447571 -0.245736 0.51896101
2.433146 -0.23869801 0.53852397
1.7019989 -0.240376 0.376701
1.729934 -0.23418 0.38288301
4.3895121 -0.239471 0.971524
4.740582 -0.234804 1.049225
2.5963371 -0.235139 0.57464302
2.7180109 -0.233639 0.60157299
5.5679302 -0.237315 1.2323411
6.2027078 -0.234502 1.372835
3.0653789 -0.243604 0.678455
3.335999 -0.243459 0.73835099
7.7742338 -0.24020401 1.720659
9.1740599 -0.237358 2.0304799
3.533422 -0.239372 0.78204697
3.907454 -0.239351 0.86483002
0.55366701 -0.23625 0.122542
0.54942298 -0.229838 0.121603
1.085621 -0.22321799 0.240279
1.275737 -0.248687 0.28235701
0.58796501 -0.24017499 0.130133
0.75560302 -0.30011001 0.167236
0.43269899 -0.20565 0.095769003
0.583242 -0.269261 0.129088
0.577712 -0.223166 0.127864
0.59499598 -0.221995 0.13169
0.56708199 -0.25550899 0.12551101
0.60209203 -0.26258501 0.13326
0.79736102 -0.24057201 0.176479
0.74192601 -0.2181 0.16420899
0.73337001 -0.264871 0.16231599
0.67312503 -0.23874401 0.148982
0.84920901 -0.24110299 0.18795399
0.86742699 -0.23828501 0.19198599
0.67630798 -0.23378401 0.14968599
0.69435102 -0.233189 0.15368
0.89370197 -0.236147 0.19780201
1.038348 -0.26175901 0.229816
0.65337503 -0.21217699 0.14461
0.90399897 -0.28296599 0.20008101
1.291513 -0.241217 0.285849
1.324687 -0.23521 0.29319099
0.97724497 -0.23530699 0.21629199
1.017858 -0.238693 0.225281
1.277297 -0.21609899 0.282702
1.433432 -0.22961 0.31725901
1.089923 -0.244868 0.24123099
1.1611741 -0.25212401 0.25700101
1.884104 -0.240738 0.41286799
1.9689929 -0.241283 0.43147001
1.965471 -0.22892401 0.43069801
2.239435 -0.2449 0.490733
1.578824 -0.24236999 0.345972
1.652622 -0.242632 0.36214301
2.359973 -0.247217 0.517147
2.430783 -0.23835599 0.53266299
1.706558 -0.240908 0.37396199
1.72352 -0.23320401 0.37767899
4.4099278 -0.240474 0.96635801
4.7649179 -0.235901 1.044148
2.599117 -0.235282 0.56955099
2.705389 -0.232447 0.59283799
5.5763659 -0.237565 1.221963
6.200048 -0.234293 1.358632
3.0735719 -0.244142 0.67351902
3.340039 -0.243641 0.731911
7.7578731 -0.23958801 1.700001
9.1940136 -0.237764 2.0147071
3.542217 -0.239857 0.77621502
3.9053881 -0.239114 0.85579699
0.54683501 -0.233227 0.119829
0.56180501 -0.234909 0.12311
1.090752 -0.22417 0.23901901
1.278255 -0.249063 0.28010699
0.598216 -0.24425 0.131089
0.75790602 -0.30088601 0.16608199
0.41604099 -0.197642 0.091168001
0.574853 -0.265266 0.12596899
0.56390399 -0.217732 0.12357
0.60244602 -0.22467101 0.132015
0.56068701 -0.25251099 0.122865
0.61030698 -0.266045 0.133738
0.81493902 -0.245763 0.17858
0.73745602 -0.216686 0.16159999
0.72191602 -0.26061401 0.158195
0.66860902 -0.237032 0.146514
0.846223 -0.240144 0.185435
0.87886101 -0.24131501 0.192587
0.66500503 -0.229771 0.145724
0.69022298 -0.231695 0.15125
0.89188498 -0.235558 0.19544099
1.045577 -0.26346001 0.22912
0.65323699 -0.212035 0.14314499
0.91249001 -0.28549299 0.199956
1.295573 -0.241864 0.28390199
1.33468 -0.236875 0.292472
0.964899 -0.232227 0.211441
1.0026619 -0.235021 0.219716
1.28642 -0.21754199 0.281896
1.429691 -0.22890501 0.313292
1.102393 -0.247555 0.24157
1.168259 -0.25354499 0.25600299
1.887177 -0.24101999 0.409401
1.955249 -0.23949 0.424169
1.969694 -0.229311 0.427302
2.228225 -0.243562 0.48338801
1.5825419 -0.24282999 0.34331399
1.664922 -0.244326 0.361186
2.3439431 -0.245425 0.50849098
2.4329529 -0.23846 0.52780098
1.710789 -0.241395 0.37113601
1.729295 -0.233878 0.37515101
4.402555 -0.239963 0.95508403
4.7336059 -0.23424301 1.026901
2.607007 -0.235889 0.56555998
2.7245829 -0.233989 0.59106702
5.5688329 -0.23713499 1.208094
6.2036991 -0.23432399 1.345821
3.082583 -0.244746 0.66873097
3.3449349 -0.24388701 0.72564501
7.773335 -0.23995499 1.686335
9.2054472 -0.237951 1.997016
3.523454 -0.238478 0.764373
3.9152811 -0.23961 0.84937501
0.54643202 -0.232949 0.118542
0.55871499 -0.23351 0.121207
1.08732 -0.223362 0.235881
1.26994 -0.24733 0.27549899
0.58668399 -0.23943201 0.12727401
0.76993698 -0.30552301 0.16702899
0.408564 -0.194001 0.088633001
0.57680798 -0.266047 0.12513199
0.57140303 -0.22052599 0.123959
0.61565101 -0.229491 0.13355801
0.55198002 -0.248476 0.119746
0.59992999 -0.26140201 0.13014799
0.80139202 -0.241567 0.173853
0.72766697 -0.21371201 0.157859
0.73038101 -0.263549 0.158448
0.67366999 -0.238718 0.146145
0.85423398 -0.24230701 0.185316
0.84859598 -0.232898 0.184093
0.66093802 -0.22826099 0.143383
0.687877 -0.230803 0.14922699
0.87937897 -0.232149 0.190771
1.046477 -0.26356599 0.22702099
0.65483898 -0.212458 0.14206
0.89482498 -0.279838 0.194122
1.294461 -0.24154601 0.280819
1.3218451 -0.23449001 0.28675899
0.96239501 -0.231519 0.208781
1.002666 -0.234915 0.217517
1.2737941 -0.215308 0.276335
1.430498 -0.22893 0.31033
1.094081 -0.24557699 0.23734801
1.164735 -0.25266501 0.25267601
1.903757 -0.243028 0.40882501
1.959856 -0.23994599 0.420872
1.965047 -0.22866701 0.421987
2.2180591 -0.242342 0.47632
1.590443 -0.24393199 0.34154201
1.646258 -0.241478 0.35352799
2.343781 -0.245297 0.50331903
2.4384301 -0.23888899 0.52364397
1.695043 -0.23906501 0.364005
1.726928 -0.23345301 0.37085199
4.3858552 -0.23894399 0.94184703
4.7639489 -0.23563799 1.023042
2.593786 -0.234586 0.557006
2.678097 -0.229893 0.57511199
5.563828 -0.23681501 1.194813
6.207324 -0.234355 1.333001
3.0765941 -0.24416099 0.66068798
3.3516271 -0.24426401 0.71974999
7.7669678 -0.23965099 1.6679291
9.1822786 -0.23724499 1.971862
3.524709 -0.238455 0.75691903
3.9021239 -0.23869701 0.83796698
0.550641 -0.23463701 0.118248
0.56050301 -0.234152 0.120366
1.0870349 -0.223203 0.233437
1.285332 -0.25021401 0.276021
0.58924401 -0.24036799 0.12653799
0.77827698 -0.30869299 0.16713201
0.42842999 -0.20334201 0.092004001
0.58640599 -0.27035201 0.125929
0.57592797 -0.22217201 0.123678
0.60777098 -0.22645099 0.13051701
0.54887903 -0.246969 0.11787
0.62182301 -0.27081901 0.133534
0.79056603 -0.238196 0.169771
0.72941202 -0.214128 0.15663899
0.72842401 -0.262725 0.156427
0.68654799 -0.24317101 0.147434
0.862167 -0.24444699 0.185147
0.837587 -0.229773 0.179869
0.64119202 -0.221342 0.137694
0.70577699 -0.236701 0.151563
0.87142301 -0.229945 0.187135
1.034842 -0.26051801 0.222229
0.65458798 -0.21228001 0.140571
0.91279602 -0.28532901 0.19602001
1.306954 -0.24376699 0.280664
1.327763 -0.235433 0.285133
0.97172803 -0.233658 0.208675
1.007098 -0.235847 0.216271
1.267894 -0.214214 0.27227601
1.439711 -0.23029999 0.30917299
1.082222 -0.242805 0.232403
1.16747 -0.253144 0.25071001
1.892469 -0.24147899 0.402257
1.977082 -0.241946 0.42024201
1.946274 -0.226381 0.41369301
2.2418139 -0.244828 0.47651201
1.601041 -0.24544699 0.340312
1.659366 -0.243292 0.352709
2.3453939 -0.24535599 0.49852899
2.4305029 -0.238006 0.51661903
1.698666 -0.23946901 0.361063
1.731586 -0.233978 0.36805999
4.390018 -0.23906399 0.93312699
4.7288389 -0.233797 1.005146
2.5929561 -0.23440599 0.55115002
2.7088859 -0.23243199 0.575791
5.5965528 -0.23810101 1.189584
6.180058 -0.23322099 1.313611
3.08618 -0.244812 0.65598798
3.3601971 -0.24477901 0.71423203
7.7651358 -0.23948701 1.6505311
9.1941166 -0.237445 1.95427
3.548573 -0.239962 0.75427198
3.914675 -0.23935799 0.83209002
0.53344601 -0.227208 0.113387
0.55160302 -0.230331 0.117247
1.0755 -0.220736 0.228605
1.2936569 -0.25172201 0.274975
0.58154303 -0.237121 0.123611
0.75281399 -0.29846001 0.160016
0.43162301 -0.20476601 0.091743998
0.57857603 -0.26662299 0.12298
0.578152 -0.222931 0.12289
0.59419501 -0.221294 0.12630001
0.55667502 -0.25036401 0.118325
0.60287702 -0.26245001 0.12814499
0.804178 -0.24218901 0.17093299
0.73917699 -0.216897 0.15711699
0.70783401 -0.25518399 0.150455
0.66868502 -0.236738 0.142133
0.84615201 -0.23979899 0.179855
0.866871 -0.2377 0.184259
0.66237903 -0.228553 0.140793
0.69301498 -0.232317 0.147305
0.88975 -0.234676 0.18912201
1.0370851 -0.260966 0.220439
0.648628 -0.210253 0.13787
0.89438403 -0.27944899 0.190107
1.289588 -0.24042 0.27410999
1.335173 -0.236641 0.28380001
0.95938498 -0.23058701 0.203924
1.002654 -0.23470099 0.213121
1.2694941 -0.214389 0.26983899
1.423997 -0.22768401 0.30267999
1.092724 -0.24505199 0.23226599
1.154421 -0.250202 0.24538
1.903344 -0.242759 0.40040401
1.9760621 -0.241714 0.415701
1.966427 -0.228624 0.413674
2.2336149 -0.24382401 0.46988201
1.575202 -0.24137899 0.33137301
1.6610349 -0.24342901 0.34942901
2.336571 -0.244325 0.491541
2.4189889 -0.236774 0.50887901
1.7077219 -0.240639 0.35925099
1.7410311 -0.23514999 0.366258
4.4229321 -0.24075 0.93044502
4.7680449 -0.235631 1.003047
2.5876191 -0.23382001 0.54435301
2.7225139 -0.23349801 0.57273102
5.5762558 -0.237133 1.173068
6.1882448 -0.233427 1.3018121
3.069808 -0.243405 0.64579099
3.3581109 -0.244519 0.70644099
7.7911429 -0.240183 1.639011
9.2046356 -0.237611 1.936365
3.52178 -0.23804501 0.74087101
3.9117789 -0.23907501 0.82291502
0.55647898 -0.23691399 0.117066
0.54869699 -0.22901601 0.115428
1.086334 -0.22286101 0.228531
1.2867661 -0.25027099 0.270695
0.59465998 -0.24236099 0.125098
0.76080298 -0.30149299 0.16004901
0.45151001 -0.21410599 0.094984002
0.58059102 -0.26743299 0.122138
0.57158899 -0.220302 0.120244
0.597408 -0.22239199 0.12567601
0.56409299 -0.25358799 0.118667
0.60427099 -0.262941 0.12712
0.82436401 -0.24815799 0.17342
0.70356601 -0.206356 0.148008
0.724904 -0.261222 0.15249699
0.65871602 -0.233105 0.13857301
0.865448 -0.245159 0.182063
0.862939 -0.236517 0.18153501
0.66777003 -0.23031101 0.140478
0.67995799 -0.22783899 0.143042
0.895311 -0.236038 0.188345
1.042978 -0.26233301 0.21941
0.66482502 -0.215408 0.13985801
0.89792299 -0.28042999 0.188895
1.298667 -0.24200501 0.27319899
1.32856 -0.235365 0.27948701
0.94711 -0.22753599 0.199242
1.00792 -0.235829 0.212035
1.276638 -0.2155 0.26856399
1.420014 -0.22694699 0.29872599
1.101884 -0.246996 0.231802
1.143115 -0.247642 0.240475
1.897678 -0.24192999 0.39506301
1.986505 -0.24288499 0.413555
1.977108 -0.229765 0.41159901
2.238759 -0.244279 0.46607
1.578069 -0.241712 0.32852599
1.654989 -0.24243701 0.34454
2.3442161 -0.24501701 0.488024
2.4395809 -0.238684 0.50787801
1.677821 -0.236322 0.34929299
1.735895 -0.23435301 0.36138299
4.3911738 -0.23891599 0.91416502
4.767056 -0.235479 0.99241698
2.6000171 -0.23483799 0.541278
2.713455 -0.232619 0.56489402
5.5958309 -0.23786099 1.164953
6.2152648 -0.23434301 1.293908
3.08725 -0.244681 0.64271098
3.3615661 -0.244663 0.69981903
7.7802482 -0.239742 1.619711
9.2199173 -0.237901 1.9194241
3.530467 -0.238527 0.734981
3.9067931 -0.238665 0.81332499
0.54817897 -0.23327699 0.114121
0.56060803 -0.23388501 0.116709
1.079695 -0.221402 0.224774
1.2899669 -0.250783 0.26854801
0.60290802 -0.24561501 0.125515
0.76320601 -0.302313 0.158886
0.43492901 -0.20615301 0.090544999
0.57250702 -0.26359299 0.119186
0.60442102 -0.23285501 0.12582999
0.59753603 -0.222342 0.124396
0.56666398 -0.254632 0.117969
0.600941 -0.26137701 0.12510499
0.80649 -0.242671 0.167897
0.729918 -0.213992 0.15195601
0.731776 -0.263583 0.152343
0.66569602 -0.23547301 0.138586
0.84745902 -0.239958 0.17642599
0.85589802 -0.234484 0.178183
0.64725602 -0.223139 0.134747
0.688474 -0.230592 0.143328
0.90988898 -0.239776 0.18942299
1.042627 -0.26212999 0.217057
0.65484399 -0.212081 0.136327
0.89800501 -0.28033301 0.186949
1.288826 -0.24006601 0.26831099
1.348281 -0.238754 0.28068799
0.96831399 -0.232528 0.20158599
1.008783 -0.235928 0.21001101
1.296636 -0.218779 0.26993701
1.420841 -0.22698 0.29579401
1.108601 -0.248393 0.230791
1.156256 -0.250379 0.240712
1.902818 -0.24248099 0.39197701
1.982105 -0.24224199 0.40831
1.958434 -0.227496 0.40343401
2.223438 -0.242502 0.458024
1.58525 -0.242707 0.32655901
1.654314 -0.24223199 0.34078601
2.349618 -0.24547499 0.48401701
2.441345 -0.238754 0.502913
1.719458 -0.242082 0.35420501
1.729141 -0.23334 0.35620001
4.414288 -0.24007 0.90933502
4.7658019 -0.235315 0.98174602
2.6027291 -0.234981 0.53615701
2.7172649 -0.23284499 0.55975199
5.580183 -0.237093 1.149507
6.2058511 -0.233887 1.278394
3.0764551 -0.24372 0.633744
3.3517389 -0.24384201 0.69045198
7.7974768 -0.24016801 1.606266
9.2180185 -0.237749 1.898895
3.5309241 -0.238455 0.727364
3.9300971 -0.239985 0.80959302
0.547921 -0.23306701 0.112871
0.56366098 -0.235056 0.116113
1.085175 -0.22242901 0.223544
1.298296 -0.25229299 0.26744699
0.56467903 -0.22994199 0.116323
0.76595801 -0.30327201 0.157786
0.42801401 -0.202787 0.088169999
0.58920997 -0.271166 0.121376
0.576635 -0.22205301 0.118786
0.61687499 -0.22943801 0.127075
0.574835 -0.258192 0.118415
0.59835702 -0.26014 0.12326
0.82410902 -0.24786501 0.169765
0.71816802 -0.210456 0.14794099
0.73074198 -0.263096 0.15053201
0.67565602 -0.238892 0.139184
0.85675001 -0.242483 0.176489
0.85606098 -0.23442701 0.176347
0.65730602 -0.226505 0.13540401
0.70724398 -0.23677599 0.14569101
0.86571503 -0.228037 0.17833599
1.028403 -0.258441 0.211849
0.65863103 -0.21321499 0.13567699
0.89589602 -0.279553 0.184553
1.284434 -0.239145 0.26459101
1.342366 -0.23760401 0.27652499
0.95814699 -0.229987 0.197377
1.006319 -0.235249 0.20730001
1.285491 -0.216805 0.26480901
1.437007 -0.229463 0.29602101
1.091884 -0.244541 0.22492599
1.178764 -0.25514299 0.242823
1.90969 -0.24325199 0.38922501
1.97361 -0.241101 0.402253
1.967613 -0.22846401 0.40103099
2.2396381 -0.244164 0.45647401
1.5841351 -0.242432 0.32287201
1.652324 -0.24183699 0.33677
2.3502409 -0.245435 0.47901601
2.432637 -0.2378 0.49581
1.692706 -0.238213 0.345
1.72895 -0.23321401 0.35238701
4.4194732 -0.24024899 0.90075898
4.7680731 -0.23532601 0.97180903
2.6120839 -0.235724 0.53238398
2.710844 -0.232195 0.552513
5.5922351 -0.23750301 1.139786
6.2276759 -0.23460899 1.269299
3.0636351 -0.24259999 0.62441701
3.3574259 -0.244151 0.68429601
7.7722502 -0.239289 1.584108
9.2212591 -0.23773099 1.879439
3.5414 -0.23906 0.721793
3.9236751 -0.23949 0.799707
0.55653 -0.236627 0.11343
0.54837102 -0.22858199 0.111767
1.088425 -0.22299901 0.221838
1.296744 -0.251883 0.26429701
0.58025199 -0.236182 0.118265
0.76909697 -0.30438399 0.156754
0.426465 -0.201966 0.086920001
0.58114702 -0.26734 0.118447
0.568138 -0.218688 0.115795
0.61386698 -0.228222 0.12511601
0.57020003 -0.25600001 0.116216
0.61082602 -0.26544699 0.124496
0.80694801 -0.242599 0.164469
0.72742099 -0.213076 0.14826
0.70901501 -0.255164 0.144508
0.66463101 -0.23489299 0.135462
0.87178499 -0.24663299 0.17768399
0.86773199 -0.23752099 0.17685799
0.668383 -0.230223 0.136227
0.69835103 -0.233698 0.142335
0.89218098 -0.234907 0.181841
1.043303 -0.26207301 0.212642
0.64833403 -0.209792 0.13214099
0.896254 -0.27954501 0.182671
1.2813441 -0.23846699 0.26115799
1.326853 -0.23475701 0.27043399
0.97663099 -0.23432299 0.199053
1.003508 -0.23449101 0.204531
1.266006 -0.21342701 0.25803199
1.4554369 -0.232306 0.29664099
1.111903 -0.248918 0.226623
1.176553 -0.25455499 0.23980001
1.9186831 -0.244294 0.38687399
1.961466 -0.23951501 0.39550099
1.9659179 -0.22816999 0.39639899
2.233496 -0.24339101 0.45035201
1.5957789 -0.244111 0.32176501
1.652391 -0.241744 0.33318001
2.342953 -0.24457 0.472422
2.432889 -0.23772299 0.490556
1.697579 -0.23879801 0.34229201
1.740628 -0.23469 0.350972
4.4345999 -0.240969 0.89417201
4.7511868 -0.234393 0.95800698
2.62694 -0.236964 0.52968401
2.7348559 -0.234152 0.55144399
5.576654 -0.23674101 1.124451
6.2423792 -0.235063 1.258685
3.093621 -0.24487001 0.62378299
3.371156 -0.245046 0.67974401
7.7918401 -0.23978999 1.57111
9.2261591 -0.237756 1.86032
3.5590961 -0.240152 0.71763998
3.9349179 -0.24007399 0.793419
0.53942603 -0.229257 0.108767
0.553855 -0.23077001 0.111677
1.0696681 -0.219063 0.215683
1.288352 -0.25014701 0.25977701
0.571854 -0.232665 0.115306
0.78064501 -0.30882299 0.157406
0.409527 -0.193863 0.082575001
0.59601802 -0.27406499 0.120178
0.58587801 -0.22542 0.118134
0.61675298 -0.229197 0.124359
0.57473898 -0.257929 0.115888
0.59874701 -0.260088 0.120729
0.80378902 -0.241547 0.162072
0.723804 -0.211926 0.145944
0.74004298 -0.26621801 0.14921901
0.66248298 -0.234034 0.13358
0.87271202 -0.24679001 0.17597
0.85705 -0.234497 0.172812
0.67154199 -0.231213 0.135407
0.69930702 -0.23391899 0.14100499
0.90384799 -0.23787799 0.182248
1.032778 -0.25931901 0.208244
0.65619498 -0.212245 0.132312
0.913239 -0.284722 0.184141
1.309693 -0.24363901 0.26407999
1.322192 -0.233833 0.266601
0.97822899 -0.234607 0.197245
1.002645 -0.23419 0.202169
1.281867 -0.21600901 0.25847
1.4420559 -0.23007201 0.29076901
1.0977761 -0.24565101 0.221351
1.1847 -0.25620899 0.238878
1.8999259 -0.241804 0.37895301
1.974476 -0.24100301 0.393823
1.9683861 -0.228361 0.39260799
2.2463419 -0.244688 0.448048
1.574556 -0.24076299 0.31405601
1.6588219 -0.24258301 0.330863
2.3460579 -0.244791 0.46793699
2.412257 -0.235608 0.481141
1.701177 -0.23920301 0.339311
1.732653 -0.23351701 0.34558901
4.4213271 -0.24014699 0.88186401
4.774848 -0.235461 0.95237601
2.6193449 -0.23617999 0.52244598
2.7135711 -0.232232 0.54123998
5.5870538 -0.237083 1.1143759
6.2074132 -0.233648 1.2381099
3.0645709 -0.242469 0.61124903
3.3512101 -0.24349301 0.66842097
7.8075562 -0.240173 1.5572701
9.2219868 -0.23754901 1.839388
3.5457211 -0.239149 0.70721799
3.9328389 -0.239847 0.78443098
0.55441701 -0.23553 0.110582
0.54207402 -0.225767 0.10812
1.070331 -0.219107 0.213485
1.28494 -0.24938001 0.25628999
0.57160097 -0.232464 0.11401
0.767654 -0.303556 0.15311401
0.42948699 -0.203226 0.085663997
0.583597 -0.26824099 0.116402
0.583516 -0.224417 0.116386
0.60155201 -0.223454 0.119984
0.56321102 -0.25264901 0.112336
0.60526597 -0.26280901 0.120724
0.80015498 -0.240354 0.159596
0.72417402 -0.211945 0.14444099
0.70665401 -0.25409999 0.140947
0.68364298 -0.24140801 0.13635699
0.86206698 -0.243678 0.17194501
0.859487 -0.235066 0.17143001
0.64656502 -0.22251999 0.128962
0.681858 -0.22798599 0.13600101
0.889678 -0.23405001 0.177452
1.037214 -0.260324 0.206879
0.64231998 -0.20767 0.128115
0.88856399 -0.276912 0.17723
1.293348 -0.24049801 0.257967
1.341247 -0.237103 0.26752099
0.97398299 -0.233491 0.194267
1.023847 -0.239042 0.20421299
1.277429 -0.21517099 0.254792
1.428228 -0.22777 0.28487
1.10945 -0.24815901 0.221287
1.16229 -0.251257 0.23182701
1.896383 -0.241253 0.374118
1.972438 -0.24065401 0.38912201
1.97162 -0.228641 0.38896099
2.25472 -0.245498 0.44481099
1.590688 -0.243129 0.313811
1.673578 -0.24463999 0.330163
2.356724 -0.245802 0.46493399
2.450979 -0.239291 0.483529
1.719884 -0.241733 0.33929899
1.749683 -0.235714 0.34517699
4.4214358 -0.240053 0.87226099
4.775465 -0.235394 0.94210303
2.6060629 -0.23488501 0.51412398
2.72262 -0.23291001 0.53711802
5.5941448 -0.237285 1.103613
6.226583 -0.234272 1.22838
3.089349 -0.24432801 0.60946703
3.3551631 -0.243679 0.661906
7.8073301 -0.24006601 1.54023
9.2384195 -0.237873 1.8225549
3.5424781 -0.238831 0.69885999
3.936898 -0.239994 0.77667099
0.54582399 -0.231783 0.10768
0.55738598 -0.23204701 0.109961
1.07655 -0.22028799 0.212382
1.295766 -0.251376 0.255629
0.59112 -0.24030299 0.116616
0.77528602 -0.306447 0.15294801
0.42305601 -0.20009901 0.083460003
0.58989799 -0.27102399 0.116375
0.58544099 -0.22506399 0.115496
0.60145599 -0.223326 0.118655
0.566019 -0.25380301 0.111664
0.60877401 -0.264222 0.120099
0.80628198 -0.242094 0.159063
0.73402798 -0.21473999 0.14480899
0.719935 -0.25876799 0.142029
0.65135902 -0.229912 0.1285
0.85381299 -0.241244 0.16844
0.86978799 -0.237784 0.171592
0.68258202 -0.234818 0.13466001
0.694947 -0.23226599 0.137099
0.89654303 -0.23575801 0.17687
1.049693 -0.26334599 0.207083
0.65503502 -0.211693 0.129225
0.91928297 -0.286367 0.181356
1.306036 -0.24275599 0.25765499
1.3481489 -0.238224 0.26596299
0.97584498 -0.23384 0.192515
1.008399 -0.235338 0.198937
1.298072 -0.218557 0.256084
1.453786 -0.23175 0.28680301
1.094243 -0.244656 0.215872
1.182393 -0.255496 0.233262
1.9109 -0.243 0.37282601
1.9955879 -0.243378 0.38934901
1.973093 -0.228718 0.38496
2.2505219 -0.244941 0.43908799
1.6015429 -0.24468701 0.31246901
1.654076 -0.24168999 0.32271799
2.334691 -0.243404 0.45550999
2.437856 -0.237912 0.475638
1.713495 -0.24073599 0.33431101
1.716965 -0.23121101 0.334988
4.4279828 -0.240309 0.86392099
4.7661228 -0.234837 0.92989397
2.6189139 -0.235946 0.51096302
2.731302 -0.233557 0.53289002
5.5915351 -0.237077 1.0909359
6.2526951 -0.235158 1.219932
3.0839939 -0.24380399 0.60170197
3.3702719 -0.24467599 0.65755701
7.7998152 -0.23973601 1.521782
9.2289438 -0.237532 1.800612
3.531872 -0.238019 0.68908602
3.921401 -0.238952 0.76508498
0.54985201 -0.23339701 0.107279
0.56923199 -0.236882 0.11106
1.088299 -0.222601 0.21233299
1.305361 -0.25313401 0.254682
0.58158702 -0.23633 0.11347
0.77141899 -0.304793 0.150508
0.42777801 -0.20225 0.083462
0.58691198 -0.26954201 0.114509
0.576545 -0.221553 0.112487
0.61105502 -0.226797 0.11922
0.55595702 -0.249189 0.10847
0.60564399 -0.26275599 0.118164
0.81127 -0.24349099 0.158283
0.734007 -0.214646 0.143208
0.71587402 -0.25720301 0.139671
0.676431 -0.238664 0.131975
0.85348803 -0.241053 0.16652
0.84589702 -0.231158 0.165039
0.67992502 -0.233808 0.13265701
0.687383 -0.229644 0.134112
0.881625 -0.23174 0.17200901
1.055626 -0.26472601 0.20595799
0.65530598 -0.211694 0.12785301
0.90872997 -0.28296301 0.17729799
1.302606 -0.242019 0.254145
1.318867 -0.232954 0.25731701
0.97379202 -0.233252 0.189992
1.005211 -0.234497 0.19612201
1.276742 -0.21487799 0.249099
1.4311841 -0.228053 0.27923101
1.091746 -0.24399699 0.21300501
1.1552449 -0.24952701 0.225394
